ply
format ascii 1.0
comment VCGLIB generated
element vertex 627
property float x
property float y
property float z
element face 0
property list uchar int vertex_indices
end_header
2.256859302520751953e+00 1.495344161987304688e+00 9.025957584381103516e-01
-1.323810696601867676e+00 -9.379126429557800293e-01 -1.313159942626953125e+00
3.853221416473388672e+00 -5.002377033233642578e-01 -3.019633054733276367e+00
3.813107728958129883e+00 -1.465275168418884277e+00 6.058031916618347168e-01
1.996871232986450195e+00 4.050733089447021484e+00 -5.049520134925842285e-01
5.121716976165771484e+00 4.927577078342437744e-01 4.352793842554092407e-02
1.403986811637878418e-01 -5.792299509048461914e-01 9.873138666152954102e-01
3.096442520618438721e-01 3.312801718711853027e-01 -1.448497176170349121e-01
1.057896900177001953e+01 -2.025146007537841797e+00 -1.901133775711059570e+00
9.733682870864868164e-01 1.116448974609375000e+01 -1.240175008773803711e+00
-1.051050424575805664e-01 1.438938617706298828e+00 -1.089372515678405762e+00
3.951539039611816406e+00 1.956231832504272461e+00 3.322582006454467773e+00
-2.437466233968734741e-01 -2.661382257938385010e-01 -4.333600699901580811e-01
2.494740486145019531e-02 1.264967203140258789e+00 1.181452274322509766e+00
4.921215057373046875e+00 -9.235884547233581543e-01 2.474114485085010529e-02
6.421202421188354492e-01 3.118965625762939453e+00 -1.351898193359375000e+00
2.228766083717346191e-01 -3.628380596637725830e-02 -2.943187057971954346e-01
9.753025174140930176e-01 1.961871981620788574e-01 -5.195803642272949219e-01
1.312852740287780762e+00 -2.517076134681701660e-01 -2.673195004463195801e-01
2.401564598083496094e+00 7.483919858932495117e-01 2.695018053054809570e+00
1.094820976257324219e+01 -1.772777318954467773e+00 4.663814544677734375e+00
-5.093076825141906738e-01 -1.870316386222839355e+00 -1.588732957839965820e+00
3.822338104248046875e+00 -2.138195991516113281e+00 -8.930337429046630859e-01
3.796196937561035156e+00 -1.755791902542114258e-01 2.569294869899749756e-01
5.838068723678588867e-01 1.498603969812393188e-01 -3.504996001720428467e-01
5.279552936553955078e+00 2.143527030944824219e+00 -8.917098045349121094e-01
7.275030016899108887e-02 -6.815769076347351074e-01 -7.955998182296752930e-01
6.683191299438476562e+00 -1.205170273780822754e+00 8.984841704368591309e-01
-1.488738600164651871e-02 -1.603706032037734985e-01 -4.015810415148735046e-02
8.610495328903198242e-01 -8.696823120117187500e-01 -2.260341405868530273e+00
8.965355157852172852e-02 -1.825159549713134766e+00 -2.038869619369506836e+00
2.878702402114868164e+00 9.120072126388549805e-01 -5.034199357032775879e-01
1.327447533607482910e+00 -1.203792244195938110e-01 -4.936504065990447998e-01
4.184969067573547363e-01 3.474220037460327148e-01 -1.800920218229293823e-01
1.055505871772766113e+00 7.129433751106262207e-01 -7.127150297164916992e-01
6.203367710113525391e+00 -1.185673832893371582e+00 2.099764823913574219e+00
1.139432430267333984e+00 1.001090645790100098e+00 -1.908428221940994263e-01
-1.164220333099365234e+00 -2.403690814971923828e+00 -1.734735250473022461e+00
1.028194069862365723e+00 1.597570776939392090e-01 -3.621290922164916992e-01
8.470399975776672363e-01 -3.003147542476654053e-01 5.228901505470275879e-01
8.310932517051696777e-01 -6.308969855308532715e-01 -3.565898537635803223e-01
8.213913440704345703e-01 -1.614809930324554443e-01 -7.420275211334228516e-01
2.804312467575073242e+00 1.195205330848693848e+00 1.777915477752685547e+00
4.532762765884399414e-01 1.530296653509140015e-01 1.603953480720520020e+00
3.032886505126953125e+00 -1.739261388778686523e+00 -1.478577971458435059e+00
2.546658515930175781e-01 1.700978577136993408e-01 -7.336777448654174805e-02
2.353811115026473999e-01 -5.466804504394531250e-01 3.881201520562171936e-02
9.662280082702636719e+00 -4.251923084259033203e+00 -1.821681499481201172e+00
1.877443194389343262e+00 3.040389299392700195e+00 1.482399106025695801e+00
2.303580045700073242e+00 -2.302039265632629395e-01 -1.868084371089935303e-01
7.485687136650085449e-01 6.894856095314025879e-01 6.841890811920166016e-01
4.952583312988281250e+00 -5.485978126525878906e-01 5.241826772689819336e-01
1.136281609535217285e+00 -1.268204748630523682e-01 -2.286406457424163818e-01
3.360239505767822266e+00 -3.210804462432861328e-01 3.304129123687744141e+00
1.036826133728027344e+00 -6.403937339782714844e-01 1.786700040102005005e-01
2.140451192855834961e+00 1.522817254066467285e+00 1.290566682815551758e+00
3.491147756576538086e+00 -3.948219716548919678e-01 1.123411536216735840e+00
5.401794910430908203e-01 1.997054219245910645e-01 -2.053679078817367554e-01
6.637946367263793945e-01 6.325453519821166992e-01 8.964452147483825684e-02
-4.689756035804748535e-02 -8.891416192054748535e-01 -2.775609016418457031e+00
1.861443281173706055e+00 1.552999258041381836e+00 1.818108081817626953e+00
1.073587685823440552e-02 -1.076705846935510635e-02 -5.388990044593811035e-01
3.966281712055206299e-01 -6.166984513401985168e-02 5.092591792345046997e-02
2.330897569656372070e+00 1.648725986480712891e+00 1.621232867240905762e+00
-1.183850541710853577e-01 1.217090636491775513e-01 -1.336248159408569336e+00
1.161403775215148926e+00 1.068100094795227051e+00 7.336083650588989258e-01
4.930188655853271484e+00 7.109501361846923828e-01 1.877605915069580078e+00
3.514501571655273438e+00 -1.709777474403381348e+00 -2.059524059295654297e+00
2.469617843627929688e+00 -9.920576214790344238e-01 -4.187659323215484619e-01
6.720093727111816406e+00 -4.073326110839843750e+00 -1.465745449066162109e+00
2.074390649795532227e+00 7.577171921730041504e-01 -4.321168959140777588e-01
5.872474908828735352e-01 3.148158550262451172e+00 6.308022737503051758e-01
2.622593641281127930e-01 2.201098203659057617e-01 -2.966734170913696289e-01
2.161633014678955078e+00 1.274578452110290527e+00 3.070458173751831055e+00
2.301856756210327148e+00 -7.504054903984069824e-01 5.017914772033691406e-01
3.453024625778198242e+00 4.155523777008056641e+00 2.366317749023437500e+00
5.118414163589477539e-01 1.116903305053710938e+01 -1.134717941284179688e+00
-2.189880609512329102e-01 5.668859928846359253e-03 -6.750950962305068970e-02
2.406384229660034180e+00 -2.696929872035980225e-01 -6.451140046119689941e-01
1.970242261886596680e-01 8.147738575935363770e-01 -3.827445507049560547e-01
2.118215113878250122e-01 2.849465310573577881e-01 -3.805702030658721924e-01
7.194336056709289551e-01 4.738233566284179688e+00 -1.240570306777954102e+00
8.987425565719604492e-01 3.465223014354705811e-01 2.410024404525756836e-03
5.763596296310424805e-01 3.075735092163085938e+00 -9.331469535827636719e-01
6.018267273902893066e-01 3.593360900878906250e+00 1.100939035415649414e+00
-7.257057726383209229e-02 -2.888869941234588623e-01 1.562403917312622070e+00
1.306878924369812012e+00 5.648816823959350586e-01 -3.772540688514709473e-01
2.043041706085205078e+00 -1.117271780967712402e+00 -1.002216935157775879e+00
1.017410659790039062e+01 1.083803057670593262e+00 2.879636287689208984e+00
3.042553663253784180e+00 1.084786415100097656e+00 -2.062856197357177734e+00
2.691589593887329102e+00 -1.060502290725708008e+00 -2.851235270500183105e-01
8.763964772224426270e-01 -1.397542238235473633e+00 -3.554764747619628906e+00
4.304427146911621094e+00 2.374142169952392578e+00 -1.912303805351257324e+00
2.020009517669677734e+00 -1.238620281219482422e-01 -5.209842324256896973e-01
3.049296617507934570e+00 3.109122514724731445e-01 -1.339500069618225098e+00
-6.949865818023681641e-02 1.675715446472167969e-01 -2.973406016826629639e-01
2.438543319702148438e+00 3.073745965957641602e-01 1.000125288963317871e+00
6.099383234977722168e-01 6.228460669517517090e-01 -2.459583282470703125e-01
-7.627680897712707520e-01 -3.534009456634521484e-01 -9.502434134483337402e-01
1.625144630670547485e-01 1.191290974617004395e+00 1.126559495925903320e+00
3.020835638046264648e+00 9.172788262367248535e-01 1.175822138786315918e+00
2.534543037414550781e+00 1.344633936882019043e+00 -1.245277643203735352e+00
1.468792796134948730e+00 -3.027341842651367188e+00 -2.745728015899658203e+00
-8.653593063354492188e-02 1.013612151145935059e+00 1.203481912612915039e+00
6.771533489227294922e+00 -2.258732616901397705e-01 -1.725142359733581543e+00
-1.413328349590301514e-01 -5.847734808921813965e-01 -1.973663717508316040e-01
5.329142808914184570e-01 -7.648149728775024414e-01 -3.766499161720275879e-01
3.043633699417114258e+00 -2.421139240264892578e+00 -3.266331434249877930e+00
2.302039146423339844e+00 2.538545131683349609e-01 -4.594343900680541992e-01
1.745588183403015137e+00 -1.785452723503112793e+00 -1.906328797340393066e+00
3.286324143409729004e-01 1.579669266939163208e-01 -1.190531328320503235e-01
3.992536664009094238e-02 -1.375959992408752441e+00 -1.238199472427368164e+00
-4.743402302265167236e-01 1.859645843505859375e+00 2.030252218246459961e-01
-1.137495040893554688e-03 1.391646623611450195e+00 1.509357929229736328e+00
1.155312582850456238e-01 6.120920181274414062e-01 2.028876841068267822e-01
3.180699190124869347e-03 4.397640228271484375e-01 -1.942438334226608276e-01
1.196719288825988770e+00 4.242570400238037109e-01 9.571975469589233398e-02
2.031457901000976562e+01 -5.530289411544799805e-01 7.336587429046630859e+00
-8.493719696998596191e-01 -2.931339502334594727e+00 -2.044843435287475586e+00
1.776201725006103516e-01 1.237819790840148926e+00 -6.190224885940551758e-01
-5.093382596969604492e-01 -1.135345578193664551e+00 -1.162588953971862793e+00
2.772416114807128906e+00 -1.022312521934509277e+00 -1.036416649818420410e+00
6.312696933746337891e+00 -9.966124296188354492e-01 -2.262092381715774536e-01
4.876080513000488281e+00 -2.454241991043090820e+00 -2.398730516433715820e+00
-1.538940519094467163e-01 2.158861458301544189e-01 -2.080619037151336670e-01
8.223000168800354004e-01 -1.647247821092605591e-01 -4.948012530803680420e-01
3.383390665054321289e+00 1.744714498519897461e+00 2.059693336486816406e+00
1.811979293823242188e+00 1.809848546981811523e+00 3.034718990325927734e+00
4.635426521301269531e+00 2.912807464599609375e-01 1.325436115264892578e+00
6.752149462699890137e-01 1.428281188011169434e+00 2.490956306457519531e+00
2.440467774868011475e-01 1.576554417610168457e+00 3.265215873718261719e+00
1.780735492706298828e+00 1.201659917831420898e+00 7.071676254272460938e-01
3.247494697570800781e-01 6.989985108375549316e-01 -1.714770048856735229e-01
1.175773143768310547e+00 -7.997801303863525391e-01 1.456600427627563477e+00
-1.451328545808792114e-01 6.986435651779174805e-01 4.589927792549133301e-01
1.398670822381973267e-01 -1.046389341354370117e+00 -4.515553414821624756e-01
1.647804260253906250e+00 -2.597363293170928955e-02 1.085377097129821777e+00
1.195944428443908691e+00 1.939736008644104004e+00 2.600963115692138672e+00
-3.911055158823728561e-03 3.087923526763916016e-01 -1.741801798343658447e-01
2.734998941421508789e+00 3.408185482025146484e+00 1.197874546051025391e+00
9.600092768669128418e-01 -1.099644452333450317e-01 -4.433584213256835938e-02
-6.300126910209655762e-01 -1.818989157676696777e+00 -1.822359442710876465e+00
7.255256175994873047e+00 -1.065749168395996094e+00 -6.415471434593200684e-01
2.047369003295898438e+00 2.304149389266967773e+00 -1.342357397079467773e+00
1.429242849349975586e+00 1.159395426511764526e-01 4.657159447669982910e-01
4.444766044616699219e+00 2.561858654022216797e+00 2.627022027969360352e+00
1.940186500549316406e+00 2.439496994018554688e+00 1.120984315872192383e+00
8.062672615051269531e-02 -3.115814924240112305e-02 1.040792763233184814e-01
1.066324472427368164e+00 1.194295287132263184e+00 2.760320901870727539e-02
1.302231550216674805e-01 5.128949880599975586e-02 -1.531425118446350098e+00
1.859764903783798218e-01 -4.609279334545135498e-01 -1.679675579071044922e-01
-1.751513928174972534e-01 8.176040053367614746e-01 8.481214046478271484e-01
7.977594852447509766e+00 -5.944615602493286133e-02 2.136612534523010254e-01
4.454512596130371094e-01 -3.617095947265625000e-01 -1.679831743240356445e-02
1.451742649078369141e-02 -2.562696933746337891e-01 6.953637599945068359e-01
7.443709850311279297e+00 -1.058374494314193726e-01 1.637324839830398560e-01
1.007751226425170898e+00 5.318350791931152344e-01 2.015181541442871094e+00
2.310577392578125000e+00 -1.337876558303833008e+00 6.659591197967529297e-01
5.292004585266113281e+00 2.719432592391967773e+00 3.713087081909179688e+00
-1.180587410926818848e-01 2.799971401691436768e-01 1.156541109085083008e-01
1.387668728828430176e+00 -1.651187092065811157e-01 -5.495547056198120117e-01
5.389535427093505859e+00 -8.696655929088592529e-02 3.113620877265930176e-01
6.216546058654785156e+00 1.025426864624023438e+00 1.354957222938537598e+00
4.045484542846679688e+00 1.929103851318359375e+00 1.383820652961730957e+00
4.060263335704803467e-01 7.997777312994003296e-02 7.118130326271057129e-01
-6.078293919563293457e-02 8.187764286994934082e-01 3.911694586277008057e-01
3.632300719618797302e-02 5.378314852714538574e-01 5.267380475997924805e-01
2.256220579147338867e+00 1.141123294830322266e+00 2.412331402301788330e-01
-2.704582214355468750e-01 3.344622254371643066e-01 2.340543568134307861e-01
1.048906922340393066e+00 4.647501409053802490e-01 -4.966475367546081543e-01
2.009724235534667969e+01 -2.209745883941650391e+00 1.535690069198608398e+00
2.487776875495910645e-01 -3.273292779922485352e-01 -1.133740425109863281e+00
-1.602622866630554199e-01 -8.279516100883483887e-01 -3.882842063903808594e-01
9.955790042877197266e-01 -3.895909786224365234e-01 -3.871978521347045898e-01
1.574930697679519653e-01 2.756271839141845703e+00 1.250950098037719727e+00
-5.080989003181457520e-01 -1.560205817222595215e+00 -1.257184386253356934e+00
2.866120338439941406e+00 -3.302699804306030273e+00 -3.024257183074951172e+00
1.640822768211364746e+00 -2.517609119415283203e+00 -2.938188552856445312e+00
2.594468116760253906e+00 5.183774232864379883e-01 2.763690650463104248e-01
2.901858091354370117e-02 2.083740234375000000e-01 2.936492562294006348e-01
4.880340099334716797e-01 7.280060052871704102e-01 1.504835337400436401e-01
1.053823590278625488e+00 1.977009177207946777e-01 -8.615328073501586914e-01
5.457354187965393066e-01 -1.405047178268432617e-01 -9.759267568588256836e-01
4.891551733016967773e-01 6.236717104911804199e-01 6.193172931671142578e-02
-4.101731777191162109e-01 1.769356727600097656e-01 2.109292268753051758e+00
9.165474772453308105e-01 -4.786794483661651611e-01 -6.038646697998046875e-01
-7.144812941551208496e-01 -7.744934558868408203e-01 -1.006651878356933594e+00
2.043182373046875000e+00 7.871605753898620605e-01 -1.171052575111389160e+00
2.050232648849487305e+00 -2.558308839797973633e+00 -1.567555308341979980e+00
-1.526043117046356201e-01 -7.357826232910156250e-01 -8.646317124366760254e-01
4.446540355682373047e+00 -6.817613840103149414e-01 -6.218423843383789062e-01
1.244135856628417969e+00 5.522455573081970215e-01 -5.510130524635314941e-01
2.510817766189575195e+00 1.537191033363342285e+00 1.962551116943359375e+00
3.795808553695678711e+00 -1.727733969688415527e+00 -2.069639921188354492e+00
4.370666980743408203e+00 -8.592246770858764648e-01 -1.449925065040588379e+00
2.648879528045654297e+00 5.367806434631347656e+00 9.240755438804626465e-01
8.580497652292251587e-02 -3.086906671524047852e-01 -4.173102080821990967e-01
-5.296890735626220703e-01 6.362698078155517578e-01 3.167018175125122070e+00
2.485829591751098633e+00 1.468741893768310547e+00 1.209027528762817383e+00
1.358286738395690918e+00 2.520788311958312988e-01 1.658626079559326172e+00
4.124599397182464600e-01 1.683947563171386719e+00 7.248064279556274414e-01
4.557827472686767578e+00 4.526630401611328125e+00 2.476399898529052734e+00
1.008826941251754761e-01 -1.534157872200012207e+00 -1.665683746337890625e+00
-7.503165006637573242e-01 1.378260493278503418e+00 9.470713734626770020e-01
-1.519731760025024414e+00 -3.789995908737182617e+00 -2.110309362411499023e+00
2.283184289932250977e+00 -5.997553467750549316e-01 -8.850356936454772949e-02
2.138470172882080078e+00 2.559875249862670898e+00 -1.862089633941650391e-01
4.698730945587158203e+00 -1.183655381202697754e+00 -2.561258077621459961e+00
3.217674493789672852e+00 -5.346157550811767578e-01 1.095414161682128906e+00
-1.281811356544494629e+00 3.285697221755981445e+00 9.811555862426757812e+00
3.297980725765228271e-01 -5.763604044914245605e-01 -5.287002921104431152e-01
8.656089305877685547e-01 -4.754363372921943665e-02 -3.367567658424377441e-01
1.653567695617675781e+01 -1.468645483255386353e-01 7.419408559799194336e-01
3.869101524353027344e+00 9.794459939002990723e-01 6.556156277656555176e-01
2.338781833648681641e+00 3.378788471221923828e+00 3.341972827911376953e-02
-3.566859662532806396e-01 -7.715609073638916016e-01 8.598241209983825684e-02
1.059025478363037109e+01 -2.057327508926391602e+00 -1.569777607917785645e+00
-4.000856280326843262e-01 -8.288790583610534668e-01 -1.240572214126586914e+00
3.274349927902221680e+00 1.326942205429077148e+00 2.751461863517761230e-01
1.626184701919555664e+00 4.163780808448791504e-01 -1.401450634002685547e-01
1.293432831764221191e+00 4.171314239501953125e-01 1.753920078277587891e+00
-1.773939609527587891e+00 -3.458624601364135742e+00 -3.225699901580810547e+00
-1.566480100154876709e-01 -1.446379065513610840e+00 -1.198097586631774902e+00
1.205062866210937500e+00 6.624555587768554688e-01 -1.342556178569793701e-01
2.938731670379638672e+00 1.108806967735290527e+00 9.967083111405372620e-03
5.557720661163330078e+00 1.845652908086776733e-01 -2.226092576980590820e+00
5.426212787628173828e+00 -8.769784569740295410e-01 -8.962743282318115234e-01
3.330641984939575195e-01 -4.510971307754516602e-01 -3.186681568622589111e-01
1.978405237197875977e+00 -7.056989073753356934e-01 -1.864082336425781250e+00
-1.391954571008682251e-01 1.619488000869750977e-01 -2.775251632556319237e-03
8.970982432365417480e-01 1.199997663497924805e+00 1.949883460998535156e+00
-1.872923821210861206e-01 -8.609954714775085449e-01 -1.921494603157043457e-01
6.617687225341796875e+00 -2.452076822519302368e-01 -3.851009309291839600e-01
3.288708925247192383e-01 -4.790386855602264404e-01 -5.916528105735778809e-01
2.789600133895874023e+00 1.382258720695972443e-02 -2.789365649223327637e-01
3.841907501220703125e+00 7.233666721731424332e-03 4.810608327388763428e-01
6.746891140937805176e-01 -2.798742428421974182e-02 -1.331054210662841797e+00
-3.154098987579345703e-01 -3.766411542892456055e-01 2.784005999565124512e-01
3.633881330490112305e+00 -1.694232106208801270e+00 -1.844655424356460571e-01
1.846477866172790527e+00 -5.923331379890441895e-01 -1.021081328392028809e+00
-3.628938674926757812e+00 -8.238362669944763184e-01 -3.969002723693847656e+00
-7.768356800079345703e-01 4.724911749362945557e-01 2.122803926467895508e-01
-1.008036136627197266e-01 3.641530275344848633e-01 5.718153715133666992e-02
6.237135410308837891e+00 2.040719985961914062e+00 4.013164043426513672e+00
3.240785121917724609e+00 4.814087390899658203e+00 1.812294006347656250e+00
2.527491569519042969e+00 9.581468105316162109e-01 -2.438600659370422363e-01
1.184315967559814453e+01 -2.424267530441284180e+00 -1.806863069534301758e+00
8.468105316162109375e+00 -5.346119999885559082e-01 3.969914913177490234e-01
2.350309133529663086e+00 1.713695526123046875e+00 2.127580642700195312e+00
7.262122631072998047e-01 4.144220829010009766e+00 3.022478580474853516e+00
2.040114402770996094e+00 1.297585248947143555e+00 2.453423976898193359e+00
1.018222272396087646e-01 -8.396618366241455078e-01 -9.235317707061767578e-01
2.141529083251953125e+00 1.364656209945678711e+00 2.353797435760498047e+00
1.430935144424438477e+00 3.159929037094116211e+00 -1.026409506797790527e+00
4.537980079650878906e+00 3.063776493072509766e+00 1.088624835014343262e+00
2.566049337387084961e+00 4.712849855422973633e-02 2.239198207855224609e+00
1.653579473495483398e+00 -1.135539174079895020e+00 -2.199534177780151367e+00
7.940463423728942871e-01 5.937314033508300781e-02 3.010587692260742188e-01
7.373679637908935547e+00 6.688750982284545898e-01 2.986658573150634766e+00
7.585776805877685547e+00 7.210277318954467773e-01 -8.844139575958251953e-01
-1.347731113433837891e+00 -2.677285909652709961e+00 -2.220445871353149414e+00
5.255987644195556641e-01 -4.998767673969268799e-01 1.501381993293762207e+00
2.802492976188659668e-01 7.077476382255554199e-02 2.987730801105499268e-01
3.334734439849853516e-01 -1.104111671447753906e+00 -1.456940889358520508e+00
1.542271971702575684e-01 1.556523323059082031e+00 1.383123636245727539e+00
1.388090991973876953e+01 -2.405065774917602539e+00 7.102198004722595215e-01
3.732937872409820557e-01 8.003881573677062988e-01 1.348272323608398438e+00
1.548092365264892578e+00 3.128300011157989502e-01 -1.230447053909301758e+00
1.940169334411621094e-01 8.721117973327636719e-01 2.501755237579345703e+00
9.323539137840270996e-01 1.640657663345336914e+00 1.075031399726867676e+00
6.282511234283447266e+00 3.885534524917602539e+00 -1.482230782508850098e+00
8.467983245849609375e+00 -4.281599044799804688e+00 -3.286201953887939453e+00
2.801495552062988281e+00 1.686421632766723633e+00 2.578352391719818115e-01
-1.626163274049758911e-01 4.329061508178710938e-02 4.617383003234863281e+00
1.144068479537963867e+00 -1.057773828506469727e+00 -1.868072509765625000e+00
8.299955368041992188e+00 6.483087539672851562e+00 3.849784374237060547e+00
3.335186004638671875e+00 -7.100906968116760254e-01 -1.206084609031677246e+00
2.420181751251220703e+00 -4.884857237339019775e-01 -5.639024376869201660e-01
2.431091666221618652e-01 1.259402394294738770e+00 3.489241003990173340e-02
7.717196941375732422e+00 -2.625760078430175781e+00 -1.808988809585571289e+00
1.667986810207366943e-01 5.515079498291015625e+00 1.490273475646972656e+00
4.340867996215820312e+00 -9.475905895233154297e-01 -1.422890424728393555e+00
-3.199505805969238281e-02 4.776357710361480713e-01 3.111339509487152100e-01
8.845094442367553711e-01 -9.971911460161209106e-02 -2.715087682008743286e-02
1.487534880638122559e+00 -1.008828401565551758e+00 -2.227021604776382446e-01
6.370264291763305664e-01 -6.012716293334960938e-01 -1.105238080024719238e+00
-1.920527666807174683e-01 -5.023648217320442200e-02 -9.026534557342529297e-01
7.436945915222167969e+00 3.486621379852294922e-02 -9.698312878608703613e-01
-1.326790094375610352e+00 -1.579731106758117676e+00 -3.356592178344726562e+00
-3.247059583663940430e-01 1.582550257444381714e-01 -3.728741109371185303e-01
-5.710134506225585938e-01 5.883380770683288574e-01 1.261037707328796387e+00
5.357292890548706055e-01 1.098822116851806641e+00 3.553764581680297852e+00
2.556334495544433594e+00 2.251876831054687500e+00 9.986099004745483398e-01
2.326828718185424805e+00 1.380304098129272461e-01 -9.857670068740844727e-01
4.657654762268066406e+00 -1.757361173629760742e+00 -2.011312097311019897e-01
2.989964008331298828e+00 6.763126850128173828e-01 1.550477147102355957e+00
1.080402374267578125e+01 -1.166625142097473145e+00 1.516552805900573730e+00
2.775703668594360352e+00 -2.074440956115722656e+00 -2.212083816528320312e+00
2.530053377151489258e+00 1.185742139816284180e+00 1.047150254249572754e+00
1.918174266815185547e+00 -5.229504108428955078e-01 -5.863226056098937988e-01
1.262825870513916016e+01 2.504103183746337891e+00 5.497902393341064453e+00
5.851641654968261719e+00 -1.205358862876892090e+00 5.027173757553100586e-01
7.382776737213134766e+00 -8.680372238159179688e-01 1.042701482772827148e+00
-6.291918754577636719e-01 -7.289394736289978027e-01 -3.807132244110107422e-01
5.194001674652099609e+00 5.483555793762207031e+00 2.807685375213623047e+00
6.696106433868408203e+00 2.517279148101806641e+00 3.271579146385192871e-01
-8.733852207660675049e-02 4.862510859966278076e-01 -2.518786787986755371e-01
-6.858890056610107422e-01 -8.482266664505004883e-01 3.220611810684204102e-01
-2.134160995483398438e-01 -2.848307788372039795e-01 2.128582298755645752e-01
4.264928817749023438e+00 3.068234682083129883e+00 1.660274982452392578e+00
5.149804115295410156e+00 -5.115632414817810059e-01 1.759157896041870117e+00
4.716916561126708984e+00 1.244042634963989258e+00 3.493014335632324219e+00
-2.263369560241699219e-01 4.025650024414062500e-02 9.834369421005249023e-01
-1.832872778177261353e-01 -9.161416888236999512e-01 -2.239028811454772949e-01
5.669913291931152344e-01 -2.053368091583251953e-02 -1.287055730819702148e+00
2.889878749847412109e-01 -2.771687507629394531e-02 2.412410259246826172e+00
4.048536419868469238e-01 1.863962411880493164e+00 -2.133253514766693115e-01
2.402210474014282227e+00 -1.291285157203674316e+00 -1.478764772415161133e+00
-4.026114344596862793e-01 2.657347679138183594e+00 4.046722054481506348e-01
2.917649269104003906e+00 1.247644662857055664e+00 -1.471108913421630859e+00
1.455255150794982910e+00 9.467713236808776855e-01 2.586294174194335938e+00
2.344475507736206055e+00 4.209920763969421387e-01 -5.991256833076477051e-01
6.490037918090820312e+00 -8.751724362373352051e-01 -3.378671705722808838e-01
5.531176567077636719e+00 1.995123982429504395e+00 1.887666583061218262e-01
3.492166996002197266e-01 -1.992033421993255615e-01 6.561212539672851562e-01
-1.876015663146972656e-01 -3.231972157955169678e-01 5.325233936309814453e-01
2.342297792434692383e+00 2.557732462882995605e-01 7.382309436798095703e-02
3.495578765869140625e-01 -1.777046918869018555e-01 1.644690513610839844e+00
2.621549844741821289e+00 -2.911109209060668945e+00 -2.360178470611572266e+00
3.402472734451293945e+00 6.221040487289428711e-01 1.381665468215942383e+00
2.588509321212768555e-01 7.074351310729980469e-01 -6.274505853652954102e-01
1.982293248176574707e+00 4.055484533309936523e-01 4.773246645927429199e-01
-4.551028460264205933e-02 -1.888584196567535400e-01 4.966499805450439453e-01
9.716887474060058594e+00 -3.013154029846191406e+00 -1.581751108169555664e+00
7.392445206642150879e-01 1.900853633880615234e+00 1.450227737426757812e+00
1.461315870285034180e+00 1.038208007812500000e-01 2.188476562500000000e+00
6.561594605445861816e-01 1.144176721572875977e+00 1.487623751163482666e-01
-2.104875564575195312e+00 -6.267423629760742188e-01 -3.815543651580810547e+00
9.503126144409179688e+00 -3.152346134185791016e+00 -2.149423837661743164e+00
7.021852135658264160e-01 1.156980633735656738e+00 -4.470749497413635254e-01
5.402173995971679688e+00 1.645376205444335938e+00 4.472437381744384766e+00
3.348540782928466797e+00 -6.192355751991271973e-01 1.496352553367614746e+00
7.057415008544921875e+00 4.267453193664550781e+00 3.678918361663818359e+00
1.089053392410278320e+00 3.568400144577026367e+00 1.336981177330017090e+00
4.531135082244873047e+00 2.119026184082031250e+00 7.601062655448913574e-01
4.203704833984375000e+00 2.272424697875976562e+00 -4.667738676071166992e-01
6.671523094177246094e+00 3.273670196533203125e+00 2.351768493652343750e+00
4.105786085128784180e-01 -2.648826837539672852e+00 -2.089004993438720703e+00
8.479685783386230469e+00 -1.930745363235473633e+00 -1.634240508079528809e+00
-2.290790677070617676e-01 3.590805828571319580e-01 -9.355908036231994629e-01
1.244592428207397461e+00 -7.659456729888916016e-01 1.357946246862411499e-01
1.114924073219299316e+00 -4.609793424606323242e-01 -3.361985087394714355e-01
1.552451968193054199e+00 -7.467804551124572754e-01 -1.107495188713073730e+00
6.170136928558349609e+00 9.823564291000366211e-01 4.311037540435791016e+00
-5.840110778808593750e-02 2.369150876998901367e+00 2.531076967716217041e-01
3.178181409835815430e+00 1.593905806541442871e+00 6.261769533157348633e-01
-1.745002567768096924e-01 -3.530650436878204346e-01 -7.030321657657623291e-02
4.545791447162628174e-01 -1.163383483886718750e+00 -1.347449183464050293e+00
7.521764636039733887e-01 -3.685967028141021729e-01 -7.404482960700988770e-01
5.902924537658691406e+00 5.907211303710937500e+00 2.620412349700927734e+00
3.500554561614990234e-01 6.312254667282104492e-01 2.808797359466552734e-01
6.307688355445861816e-01 8.760782480239868164e-01 7.540574669837951660e-01
1.541796588897705078e+01 -4.013854503631591797e+00 8.791955113410949707e-01
3.846856355667114258e+00 -2.060261964797973633e+00 9.948054552078247070e-01
-6.839958429336547852e-01 -1.834623813629150391e+00 -1.422987222671508789e+00
-5.740284919738769531e-02 -2.847559452056884766e-01 1.684763431549072266e-01
1.082031250000000000e+01 -1.470841407775878906e+00 -7.854346036911010742e-01
-8.473640680313110352e-01 -1.288920283317565918e+00 -1.393960833549499512e+00
7.404031157493591309e-01 2.477583587169647217e-01 7.227600365877151489e-02
1.073626995086669922e+00 -7.252425551414489746e-01 -1.247301936149597168e+00
1.469354748725891113e+00 -1.358204245567321777e+00 2.762501955032348633e+00
8.921767473220825195e-01 1.054761290550231934e+00 4.105010032653808594e-01
1.526310205459594727e+00 2.595395088195800781e+00 1.699313163757324219e+00
-2.764605283737182617e-01 -4.394046366214752197e-01 -6.309865117073059082e-01
2.007935762405395508e+00 2.732072830200195312e+00 -1.340133547782897949e-01
6.346195220947265625e+00 2.906453907489776611e-01 8.819754719734191895e-01
1.413439154624938965e+00 -1.866518139839172363e+00 -1.497581481933593750e+00
8.681581497192382812e+00 1.412925124168395996e-01 -1.487345457077026367e+00
2.536349773406982422e+00 1.181055426597595215e+00 -9.546431899070739746e-02
1.466597914695739746e+00 1.064882278442382812e+00 7.572073340415954590e-01
3.713087081909179688e+00 1.013361930847167969e+00 -9.137177467346191406e-02
1.897037327289581299e-01 -1.144405007362365723e+00 -2.572245836257934570e+00
7.659584879875183105e-01 -7.223334312438964844e-01 -1.828846812248229980e+00
8.733858466148376465e-01 -4.313465654850006104e-01 -8.698499202728271484e-01
2.050209999084472656e+00 7.278927564620971680e-01 -6.012023687362670898e-01
8.533688783645629883e-01 -1.510481834411621094e-01 -7.374131679534912109e-01
4.039531648159027100e-01 3.830138444900512695e-01 1.239769160747528076e-01
1.946904182434082031e+01 -3.145350933074951172e+00 5.107910633087158203e-01
-3.334748558700084686e-03 1.146627664566040039e+00 6.362821459770202637e-01
5.530537128448486328e+00 4.217711687088012695e-01 2.384701490402221680e+00
1.957244515419006348e+00 3.295757770538330078e+00 1.721275448799133301e+00
-3.188013136386871338e-01 2.088859379291534424e-01 6.284746527671813965e-01
1.435949230194091797e+01 -8.978500962257385254e-01 -1.884414434432983398e+00
3.444052219390869141e+00 -1.438424825668334961e+00 -1.450979709625244141e+00
6.418788433074951172e+00 -3.101093292236328125e+00 -1.728824377059936523e+00
1.834143519401550293e+00 -1.226997017860412598e+00 -9.055325388908386230e-01
5.441333770751953125e+00 2.466603279113769531e+00 1.141705274581909180e+00
2.860332131385803223e-01 6.297712326049804688e-01 3.837912678718566895e-01
3.312544822692871094e+00 -3.224944829940795898e+00 -2.498081684112548828e+00
2.117509394884109497e-02 1.862672120332717896e-01 -1.864280253648757935e-01
1.484842300415039062e+00 1.606084465980529785e+00 7.165234088897705078e-01
1.795312643051147461e+00 -7.540415525436401367e-01 -1.692454814910888672e+00
1.001159429550170898e+00 -6.374063491821289062e-01 -5.912428498268127441e-01
2.229626893997192383e+00 1.098296418786048889e-01 2.122223377227783203e-01
3.960529327392578125e+00 -1.579782605171203613e+00 2.313836514949798584e-01
1.511008739471435547e+00 2.313949108123779297e+00 1.287737488746643066e-01
1.158041286468505859e+01 -2.086579322814941406e+00 -1.000762343406677246e+00
3.965456783771514893e-01 -2.071600556373596191e-01 1.981675438582897186e-02
3.360624313354492188e+00 -1.665212039370089769e-04 -4.321252182126045227e-02
6.320204734802246094e+00 1.199004292488098145e+00 1.498247623443603516e+00
4.402944445610046387e-02 -3.888652324676513672e-01 -3.197646439075469971e-01
1.143390417098999023e+00 4.978942871093750000e-02 -2.608255147933959961e-01
1.225683403015136719e+01 -6.706143021583557129e-01 2.045506477355957031e+00
2.032720565795898438e+00 2.231735706329345703e+00 -8.655201792716979980e-01
5.563369274139404297e+00 -3.542232215404510498e-01 1.098394274711608887e+00
5.554462909698486328e+00 1.359766721725463867e+00 2.686082124710083008e+00
3.533845543861389160e-01 -3.686997592449188232e-01 -3.638587892055511475e-02
3.945360422134399414e+00 -2.070221185684204102e+00 2.999874353408813477e+00
-2.992484867572784424e-01 -9.314879179000854492e-01 -5.158199742436408997e-02
2.117728948593139648e+00 1.469285249710083008e+00 1.409231781959533691e+00
1.279694175720214844e+01 1.381600022315979004e+00 -2.661806583404541016e+00
-1.050895452499389648e+00 -7.304117083549499512e-01 8.899805545806884766e-01
4.321271419525146484e+00 6.890218853950500488e-01 -9.454357624053955078e-01
-1.344563513994216919e-01 1.011480450630187988e+00 9.338253736495971680e-02
-7.857162952423095703e-01 2.422742694616317749e-01 -5.377004146575927734e-01
1.039668440818786621e+00 1.067334651947021484e+00 1.538408994674682617e+00
-6.148118972778320312e-01 7.639961838722229004e-01 1.359802246093750000e+00
1.048821449279785156e+00 -2.432502031326293945e+00 -1.548577904701232910e+00
9.333331584930419922e-01 1.332646906375885010e-01 -1.447284072637557983e-01
4.434032440185546875e+00 9.596818685531616211e-01 2.505339622497558594e+00
-3.001978993415832520e-01 1.103083372116088867e+00 9.745007753372192383e-01
1.748479604721069336e+00 1.627439260482788086e+00 1.189904570579528809e+00
-1.111409544944763184e+00 -1.463852047920227051e+00 -7.773141264915466309e-01
3.445677042007446289e+00 1.525323033332824707e+00 2.798484325408935547e+00
4.744594097137451172e+00 -3.141891479492187500e+00 -3.613203525543212891e+00
7.073056697845458984e+00 7.350406050682067871e-01 4.856381416320800781e+00
-7.347207069396972656e-01 -8.532548546791076660e-01 -1.276418924331665039e+00
-2.690730243921279907e-02 3.463549613952636719e-01 2.396495342254638672e-01
1.121427345275878906e+01 -7.529609203338623047e-01 1.185884237289428711e+00
3.462930440902709961e+00 5.170968055725097656e+00 4.464796483516693115e-01
2.090591907501220703e+00 5.411870479583740234e-01 -6.407523155212402344e-02
-2.979008555412292480e-01 -3.116367757320404053e-01 6.578944921493530273e-01
1.774236083030700684e+00 1.040491700172424316e+00 1.869269609451293945e-01
1.206555485725402832e+00 -6.117150187492370605e-01 -1.068522214889526367e+00
-6.087262299843132496e-04 1.538637280464172363e+00 7.828738093376159668e-01
7.258315086364746094e+00 -2.735162973403930664e-01 6.544352173805236816e-01
-1.501153230667114258e+00 -1.142331838607788086e+00 -1.256516337394714355e+00
2.076735496520996094e-01 4.007027626037597656e+00 -1.494047164916992188e+00
1.824730187654495239e-01 6.559814214706420898e-01 7.044115066528320312e-01
4.896594047546386719e+00 -5.691312551498413086e-01 -5.087589025497436523e-01
2.365712881088256836e+00 -1.028249114751815796e-01 -1.078599929809570312e+00
2.314574420452117920e-01 -1.758259981870651245e-01 3.862360119819641113e-02
-1.719235897064208984e+00 -2.183860778808593750e+00 -2.096194028854370117e+00
6.093440532684326172e+00 -1.971432924270629883e+00 3.110792636871337891e-01
8.788173675537109375e+00 -1.562196612358093262e+00 -4.088819921016693115e-01
9.635368585586547852e-01 -8.275717496871948242e-02 -2.696912884712219238e-01
5.726269245147705078e+00 5.147026181221008301e-01 2.478780746459960938e+00
-8.243713527917861938e-02 2.461022436618804932e-01 -1.457398682832717896e-01
-2.177357673645019531e-04 1.368791759014129639e-01 -3.255519270896911621e-02
1.171632170677185059e+00 -1.403157711029052734e-01 8.682992458343505859e-01
1.992197513580322266e+00 -1.485274195671081543e+00 -1.594365239143371582e+00
1.590414792299270630e-01 2.454406321048736572e-01 -8.000745773315429688e-01
2.096170783042907715e-01 1.032043695449829102e+00 1.014504209160804749e-01
1.370303392410278320e+00 -7.100498080253601074e-01 1.011382937431335449e+00
-3.770235180854797363e-01 7.555991411209106445e-01 1.484488606452941895e+00
-2.777232527732849121e-01 -2.691149711608886719e+00 -2.344969749450683594e+00
7.379314899444580078e-01 -2.400980710983276367e+00 -1.104658722877502441e+00
1.536978960037231445e+00 -3.148917913436889648e+00 -1.860382914543151855e+00
7.231090664863586426e-01 3.764244019985198975e-01 -2.256285399198532104e-01
3.401605129241943359e+00 2.106652498245239258e+00 -8.848137855529785156e-01
3.107853651046752930e+00 -1.007835149765014648e+00 -2.105269432067871094e+00
1.350843012332916260e-01 3.957305252552032471e-01 3.011114597320556641e-01
-3.728255331516265869e-01 1.571301817893981934e-01 -6.919572949409484863e-01
1.161019444465637207e+00 9.877377748489379883e-01 1.410396099090576172e+00
3.423629999160766602e+00 4.607372283935546875e+00 3.301084995269775391e+00
5.618039518594741821e-02 1.459299027919769287e-01 5.055394023656845093e-03
2.164061069488525391e-01 6.006845831871032715e-01 4.683765172958374023e-01
2.914653062820434570e+00 7.656607627868652344e-01 -1.843433856964111328e+00
1.189128160476684570e+00 2.015984058380126953e+00 1.220227003097534180e+00
3.076953887939453125e+00 6.453575134277343750e+00 3.239544630050659180e-01
8.474147915840148926e-01 2.605239391326904297e+00 2.385920286178588867e-02
4.701169013977050781e+00 1.107163786888122559e+00 1.804799556732177734e+00
5.454907417297363281e-01 3.432772159576416016e-01 7.059545516967773438e-01
9.951915144920349121e-01 -3.716642260551452637e-01 -9.189779758453369141e-01
-3.914771080017089844e-01 4.403356313705444336e-01 -1.218815445899963379e+00
2.796977043151855469e+00 4.288887023925781250e+00 2.008456230163574219e+00
2.388255745172500610e-01 2.460652738809585571e-01 -6.557127237319946289e-01
1.061457633972167969e+01 -3.591521263122558594e+00 3.195059776306152344e+00
-2.714270591735839844e+00 -1.032239079475402832e+00 -2.448969364166259766e+00
8.339636802673339844e+00 1.492295384407043457e+00 3.727117776870727539e+00
1.615031003952026367e+00 2.654735147953033447e-01 -1.728090047836303711e-01
2.040165901184082031e+00 2.012054681777954102e+00 5.422392487525939941e-01
2.971596479415893555e+00 -1.493182927370071411e-01 5.333592295646667480e-01
-5.109167098999023438e-02 -8.538187742233276367e-01 -3.443024873733520508e+00
1.484977364540100098e+00 -4.649200141429901123e-01 1.973960399627685547e+00
1.640431523323059082e+00 -1.034533023834228516e+00 7.181398570537567139e-02
2.195879936218261719e+00 1.754683107137680054e-01 1.109529733657836914e+00
1.947157740592956543e+00 1.757511734962463379e+00 3.163654327392578125e+00
2.688898086547851562e+00 1.480228424072265625e+00 3.322209358215332031e+00
-2.220489382743835449e-01 -1.898713827133178711e+00 -1.670575618743896484e+00
1.401062607765197754e+00 2.064639478921890259e-01 -9.653153419494628906e-01
2.114898443222045898e+00 -1.450648188591003418e+00 -8.780301213264465332e-01
-1.622264832258224487e-01 -1.561077684164047241e-01 2.809286862611770630e-02
3.397471904754638672e+00 -5.420779585838317871e-01 -4.418434500694274902e-01
2.445810437202453613e-01 1.634774804115295410e-01 3.392741084098815918e-01
3.002833724021911621e-01 5.686995983123779297e-01 3.297077119350433350e-01
6.304161071777343750e+00 -2.597921133041381836e+00 -1.362842082977294922e+00
2.894327640533447266e+00 2.089340090751647949e-01 6.270453333854675293e-01
2.278489351272583008e+00 -8.585264086723327637e-01 -3.581454455852508545e-01
8.621207475662231445e-01 5.062122344970703125e-01 8.088636398315429688e-01
7.494845390319824219e+00 3.273976325988769531e+00 1.996142387390136719e+00
4.322312772274017334e-01 -4.659048914909362793e-01 -8.208722472190856934e-01
8.417624235153198242e-01 7.479205727577209473e-01 1.569886326789855957e+00
1.241655349731445312e+01 -1.619077086448669434e+00 -1.361974924802780151e-01
1.160408878326416016e+01 2.999748587608337402e-01 1.795700073242187500e+00
4.919597148895263672e+00 1.911216378211975098e+00 7.859165668487548828e-01
3.767472743988037109e+00 7.463584542274475098e-01 -4.149881601333618164e-01
1.488804221153259277e+00 -4.377140998840332031e-01 6.425386071205139160e-01
7.195350527763366699e-01 1.224030017852783203e+00 7.811616659164428711e-01
3.488791465759277344e+00 -8.780801892280578613e-01 -4.533442556858062744e-01
-9.441610574722290039e-01 -3.209229931235313416e-02 -4.880836904048919678e-01
2.013331890106201172e+00 -1.333232074975967407e-01 1.359028220176696777e+00
1.443048357963562012e+00 -8.302072286605834961e-01 -2.241535484790802002e-01
-2.153544127941131592e-02 -9.928755462169647217e-02 7.286573946475982666e-02
4.332789182662963867e-01 1.591576576232910156e+00 7.317470312118530273e-01
9.728404283523559570e-01 4.017564296722412109e+00 3.286042690277099609e+00
3.703038692474365234e+00 5.350602269172668457e-01 1.938772439956665039e+00
4.176743984222412109e+00 7.720816135406494141e-02 2.655807256698608398e+00
-5.735936164855957031e-01 -7.271100282669067383e-01 -3.227209448814392090e-01
9.800876379013061523e-01 -2.092516422271728516e+00 -2.878052949905395508e+00
4.277127265930175781e+00 -6.947700381278991699e-01 3.721200525760650635e-01
-1.600407809019088745e-02 6.972852349281311035e-01 5.257769227027893066e-01
2.779887676239013672e+00 3.167342901229858398e+00 -1.052369475364685059e+00
4.235974550247192383e-01 9.110124111175537109e-01 1.288754701614379883e+00
4.074886441230773926e-01 4.764429032802581787e-01 -9.145709872245788574e-02
2.178484946489334106e-01 -1.604068279266357422e-01 1.497512936592102051e+00
2.034793198108673096e-01 8.640030622482299805e-01 -3.143866062164306641e-01
3.316688910126686096e-02 -4.528843462467193604e-01 5.882049202919006348e-01
-1.452176831662654877e-03 -6.299655437469482422e-01 -3.390798270702362061e-01
6.468608379364013672e+00 -1.421722292900085449e+00 -1.095903962850570679e-01
7.256051063537597656e+00 1.852378964424133301e+00 3.096906661987304688e+00
-8.684797585010528564e-02 -9.588505029678344727e-01 -1.862904429435729980e-01
4.079756736755371094e-01 -5.010589957237243652e-03 -2.780202031135559082e-01
6.727102994918823242e-01 -5.807108283042907715e-01 -1.096482396125793457e+00
4.315114498138427734e+00 -1.356247663497924805e-01 3.818805217742919922e+00
4.148005485534667969e+00 7.153159618377685547e+00 4.775464534759521484e-02
5.998803138732910156e+00 -1.349261403083801270e+00 1.850466877222061157e-01
-9.932972788810729980e-01 9.635750055313110352e-01 1.045717149972915649e-01
1.969475984573364258e+00 9.386137723922729492e-01 1.195290803909301758e+00
6.506812572479248047e+00 -2.015889644622802734e+00 -9.505059719085693359e-01
3.291291743516921997e-02 -5.985252186655998230e-02 9.262684583663940430e-01
4.062649905681610107e-01 -6.247262358665466309e-01 1.022472605109214783e-01
6.394664049148559570e-01 4.916819334030151367e-01 8.084471225738525391e-01
4.294536411762237549e-01 -4.567263647913932800e-02 5.927454829216003418e-01
3.695821762084960938e+00 -1.034078001976013184e+00 -1.027219772338867188e+00
8.492377400398254395e-01 -1.243967890739440918e+00 -2.707771658897399902e-01
1.984811186790466309e+00 2.131022453308105469e+00 2.049545764923095703e+00
8.577848076820373535e-01 3.948893070220947266e+00 3.837636113166809082e-01
2.840873241424560547e+00 -1.426597952842712402e+00 -4.072309017181396484e+00
1.022878646850585938e+00 -4.254148602485656738e-01 -2.104946613311767578e+00
2.431704849004745483e-01 -5.881633609533309937e-02 3.295911550521850586e-01
2.682290077209472656e+00 4.213556945323944092e-01 2.248692274093627930e+00
6.247826576232910156e+00 -3.412776947021484375e+00 -3.369902372360229492e+00
-7.539800405502319336e-01 5.549103260040283203e+00 -2.256526708602905273e+00
5.413214683532714844e+00 -1.770368456840515137e+00 -1.039908528327941895e+00
3.739531040191650391e-01 1.928070932626724243e-01 -1.468335390090942383e-01
-2.148923873901367188e-01 4.989640712738037109e-01 1.536756157875061035e-01
1.817935407161712646e-01 4.103973209857940674e-01 3.701237440109252930e-01
8.508550524711608887e-01 -9.006403684616088867e-01 -1.300293207168579102e+00
9.046348929405212402e-01 2.493000775575637817e-01 -2.150700800120830536e-02
5.817289352416992188e-01 8.102023005485534668e-01 7.029652595520019531e-01
-1.117914617061614990e-01 8.472843766212463379e-01 4.267666637897491455e-01
1.621523261070251465e+00 2.257261276245117188e-01 1.090878248214721680e-01
2.225697278976440430e+00 -7.973702251911163330e-02 3.082778692245483398e+00
9.535519599914550781e+00 6.740080714225769043e-01 6.450785636901855469e+00
3.641570329666137695e+00 1.887322187423706055e+00 3.140858173370361328e+00
-6.842985749244689941e-02 -1.093983292579650879e+00 -3.291978836059570312e+00
-1.007219076156616211e+00 3.313494622707366943e-01 -1.012833833694458008e+00
6.215324878692626953e+00 2.700591087341308594e-02 2.039281845092773438e+00
8.265185952186584473e-01 -8.894980549812316895e-01 -2.250664234161376953e-01
-1.744688153266906738e+00 -2.645936727523803711e+00 -1.651976704597473145e+00
5.522752404212951660e-01 4.261361360549926758e-01 1.134939193725585938e+00
6.800425052642822266e-01 -3.836501240730285645e-01 8.500858210027217865e-03
-1.308416128158569336e-01 -1.580823302268981934e+00 -1.323786258697509766e+00
6.916368484497070312e+00 6.840187311172485352e-02 3.123621702194213867e+00
1.387907385826110840e+00 3.940212726593017578e+00 2.258697509765625000e+00
4.681177139282226562e+00 -6.085237860679626465e-01 2.048234462738037109e+00
1.399334967136383057e-01 -5.291869044303894043e-01 -9.607705473899841309e-01
8.744639754295349121e-01 5.576708316802978516e-01 9.176131486892700195e-01
6.900622844696044922e-01 7.803481101989746094e+00 -1.788686156272888184e+00
6.943191051483154297e+00 -5.703151226043701172e-03 2.123783588409423828e+00
1.985752344131469727e+00 9.594275951385498047e-01 -4.853588938713073730e-01
1.047469377517700195e+00 -8.113730549812316895e-01 -1.585214018821716309e+00
-6.676927953958511353e-02 -2.328911781311035156e+00 -1.381730675697326660e+00
2.863353788852691650e-01 -2.233031950891017914e-02 5.003787875175476074e-01
6.039082527160644531e+00 -6.919127106666564941e-01 1.979332089424133301e+00
6.948747038841247559e-01 -7.521834224462509155e-02 1.122419953346252441e+00
2.149563312530517578e+00 -6.299221515655517578e-01 -6.130143404006958008e-01
5.906102180480957031e+00 -2.098173141479492188e+00 4.256796538829803467e-01
2.492573976516723633e+00 -5.552877783775329590e-01 -6.132364273071289062e-01
6.250562667846679688e+00 5.660049915313720703e-01 9.883973002433776855e-01
2.511785030364990234e-01 4.726136922836303711e-01 2.138921618461608887e-01
1.234980583190917969e+00 1.101679205894470215e-01 -9.591592848300933838e-02
2.141704082489013672e+00 -6.604845523834228516e-01 -1.819971650838851929e-01
-6.498777866363525391e-01 -5.566911101341247559e-01 -8.225293755531311035e-01
-5.587403178215026855e-01 2.652778625488281250e-01 -6.566778421401977539e-01
6.843549013137817383e-01 5.963957309722900391e-01 4.296140968799591064e-01
1.404058814048767090e+00 -6.522161960601806641e-01 4.851263165473937988e-01
1.508466839790344238e+00 2.335781097412109375e+00 1.568629503250122070e+00
2.245007008314132690e-01 -1.362878084182739258e-01 7.122711092233657837e-02
-5.650088191032409668e-03 -2.598399162292480469e+00 -3.223796367645263672e+00
3.333592891693115234e+00 3.370010375976562500e+00 4.337040901184082031e+00
-1.133129224181175232e-01 5.672075748443603516e-01 1.612211346626281738e+00
2.462673425674438477e+00 -3.469464182853698730e-01 1.630375027656555176e+00
4.914580881595611572e-01 3.374156951904296875e-01 -2.029641568660736084e-01
-2.625011205673217773e-01 6.476706266403198242e-01 4.040479063987731934e-01
1.655433058738708496e+00 6.116887331008911133e-01 -7.189117670059204102e-01
1.505255699157714844e+01 -3.320369958877563477e+00 -2.820669174194335938e+00
6.990239024162292480e-01 -5.924746394157409668e-01 -1.936700344085693359e-01
4.499250650405883789e-01 1.126763582229614258e+00 -6.386756896972656250e-01
3.253501951694488525e-01 9.151579141616821289e-01 -4.786210507154464722e-02
1.958041042089462280e-01 -5.626729130744934082e-01 -1.187755987048149109e-01
3.931796073913574219e+00 -1.020700931549072266e+00 -9.250757694244384766e-01
6.795996427536010742e-01 -2.528159618377685547e+00 -1.663242101669311523e+00
6.870961189270019531e+00 -1.006267309188842773e+00 -6.207702159881591797e-01
6.048061847686767578e-01 7.557303309440612793e-01 1.277484893798828125e+00
1.518836617469787598e+00 -2.286144196987152100e-01 -2.010282725095748901e-01
